# 3D point list with one line of data per point:
#   POINT3D_ID, X, Y, Z, R, G, B, ERROR, TRACK[] as (IMAGE_ID, POINT2D_IDX)
# Number of points: 395, mean track length: 4.1914893617021276
4840 -0.27597356033434095 3.555338970093727 2.5914054472407915 107 100 84 0.081016477101400378 2 10296 3 8172 4 7746
4841 -1.8970742178740458 2.9429660985975237 3.4896927409772549 245 225 173 0.91599740282783504 2 9695 3 8178 4 7762 5 8198
4842 -1.0617944205115473 3.1865090220212977 3.1762338839297728 227 201 150 0.96824649417189623 2 9781 3 8183 5 7701 4 6165 6 11363 7 7916 11 6979 10 7346 9 9338 8 11871
4843 0.5333060373999251 3.7727383481465204 2.318912061673462 113 97 70 1.0655016675194089 2 9835 3 8184 4 7140 5 7094 6 11230 5 7633 7 7020 8 11068
4844 -0.67017164691110453 3.3246957758362967 2.9726871881339054 207 191 145 0.75724002526204381 2 10305 3 8185 9 9295
4846 1.1896795598982401 3.9464090240595446 2.0726136013303527 85 76 66 0.62077017421120895 15 11692 3 8193 6 9801
4848 1.3623071297677329 3.7997307730321888 2.3335546618747451 249 220 170 0.53398577379988454 17 8641 3 8220 5 6204 6 9844 7 5744 8 8586
4849 1.5752600771080358 3.8371448959180534 2.2823757092526376 78 75 58 1.4195863367454851 16 7766 3 8226 5 6189 6 9825 7 3882
4850 1.4403628844876397 3.7926829272064246 2.353209532988918 90 84 74 0.37936031344339805 15 10916 3 8227 4 7184
4851 1.4080240995482547 3.7822214427662639 2.3719166095232249 244 220 174 0.52129969149338762 17 8651 3 8228 4 7186 5 6216 6 10679
4852 -0.88313572791364858 2.8489440600067328 3.7818672883863438 129 112 92 0.89290619304306007 2 9894 3 8243 4 7315 10 8035 9 9761
4853 1.7443400034215004 3.8361678618696651 2.3119611405254479 100 90 80 1.6646355686694883 16 7790 3 8247 4 7199
4854 0.56438140436180817 3.2725401803079315 3.180674069159124 103 88 67 0.49276183545418428 2 10391 3 8269 5 7717
4855 1.3636556656637207 3.5419734525242625 2.7820430451126121 90 84 68 1.0816947570708839 17 7751 3 8274 4 7263 5 7162
4856 0.066582713734689575 3.0099121978515848 3.5887709294386712 128 117 92 0.5895270608496036 2 9957 3 8285 4 7337 5 7757 6 11380 11 4606 8 11187
4857 1.9447647202258622 3.6809481240697037 2.579551729000424 88 81 63 0.82688766869260455 16 7806 3 8294 4 7269 5 7140
4858 -0.38902906956003136 2.7831769965710191 3.9497558668387596 226 204 147 0.38806603488336461 2 9210 3 8297 4 7380
4859 1.2552746617235038 3.3875782440234503 3.0373275253927301 100 75 53 1.7492102752995198 17 8609 3 8301 4 7323 6 11290
4860 1.9537195963930418 3.5802584974037779 2.7592715374452732 76 70 59 1.6494993377904301 16 6886 3 8313 4 7320
4861 -2.0349858315312135 7.0906219122455845 -3.6325414318442983 142 149 167 1.2264565742379767 2 10407 3 8366 4 7512
4862 -1.9656830763090172 6.9064211383426866 -3.3362298551862737 135 145 157 0.45425045377422107 2 10672 3 8369 4 7938
4863 -1.9656830763090172 6.9064211383426866 -3.3362298551862737 135 145 157 0.45425045377422107 2 10673 3 8370 4 7939
4864 -3.108340514906657 6.5835336529777724 -2.9087081782141291 134 141 149 0.92468998956815607 2 10671 3 8372 6 11701
4865 -1.8204217070302535 6.4806918611766724 -2.4572812633728289 127 125 120 1.2260227990001085 2 10425 3 8382 4 6806
4866 -1.6323907481442119 6.3523368880946212 -2.3011614191162715 172 157 126 0.37107230974573735 2 10687 3 8384 4 7954
4867 -0.49766975250442591 6.15120578795743 -1.9061231417478772 179 166 150 0.80390034267557242 2 10449 3 8404 4 7529
4868 -0.13064750254725579 5.8770418897963914 -1.3716716666462734 225 214 194 0.84696581237051516 2 10463 3 8426 4 7546
4869 -0.45522521856364151 5.731960479919759 -1.1232405662780096 146 147 143 0.37861034375014208 2 10466 3 8430 4 7551 5 7437
4870 -0.06797249237507727 5.8085014634698293 -1.2208314972857877 166 169 174 0.80675871606638994 2 10474 3 8433 4 7554
4871 -0.35972076566946298 5.2696574235017373 -0.32912939243952882 140 139 135 0.26327403566184265 2 10712 3 8462 4 7587
4872 0.040716154283820583 5.2234139304337672 -0.23154663207217219 145 143 130 0.99061080976395932 2 10498 3 8473 4 7596 5 6862
4873 1.4905530472127593 4.8854469752991072 0.45961902839113933 192 179 132 1.0290632261625321 17 9777 3 8516 4 6984 5 6911 6 10502
4874 1.4939484887318193 4.7474218247095319 0.70529689473038093 105 93 76 0.92378670894480452 17 9775 3 8529 4 8051
4875 -2.1314551268040653 3.1391359202491129 3.1579742305970782 175 163 141 0.8798144636212607 2 10543 3 8546 4 8085 5 8176 9 10431 7 8844
4876 -1.6100456608539806 3.3004400945037546 2.9252064780586 145 130 109 0.75777580489354401 2 10234 3 8550 4 8079 5 8158 6 11836 7 8722 11 9466 10 8870 9 10276 8 12542
4877 -1.684280685147072 3.2590943658122979 2.9912283170533094 149 137 117 0.90959974150247569 2 10550 3 8554 4 8083 5 8161 6 11999 7 8832 11 9668 10 8881 9 10406 8 12645
4878 1.668455662418 4.4019134350313909 1.3345142002160708 102 90 76 0.38552442163704037 12 8534 4 7703 5 7567
4879 -1.6600010409623382 3.1998455764342264 3.0915051508804412 203 179 138 1.6237603768880806 2 10555 3 8563 5 8173 7 8733 11 9469 10 8878 9 10284
4880 -0.15270168056601821 3.6745457368465932 2.4004604870657373 57 53 42 0.80659964381994564 2 10580 3 8573 4 8078 6 11787
4881 -1.5836279130826212 3.1777766627322106 3.1670958397585611 238 217 160 0.46753983482528544 2 10565 3 8575 4 8090 5 8178
4882 -1.5708582936752162 3.1614768755330336 3.163694146194246 238 217 160 1.0821860900423621 2 10566 3 8576 4 8089 5 8177 6 11853 7 8735 11 9464 10 8871 9 10281 8 12545
4883 -0.20756537532228445 3.6264308569319694 2.4575978044593718 63 56 48 0.86777259217016678 2 10582 3 8578 4 7740 5 7934
4884 -0.37108292509736818 3.5678167398765037 2.6005207900371734 70 64 50 1.131163262493623 2 10584 3 8581 4 7743
4886 -1.4578699889075637 3.1019908333858632 3.2795763352483656 237 217 167 0.33329359876933984 2 10574 3 8585 4 8102 5 8186
4887 0.39239485440559291 3.7590741095178104 2.3056267243003155 93 74 42 1.0128917343642856 2 9819 3 8586 4 7742 5 7926 6 11570 7 7796 11 7985 10 7123 9 9194 8 11749
4888 -1.831871535667859 2.9363379517446639 3.5344298778335488 173 158 126 0.92281227633043073 2 10572 3 8588 4 8112 5 8202
4889 0.84893008134900516 3.8914295168829405 2.1062101311545618 88 81 63 2.3982748420641533 2 10617 3 8589 4 7741 6 11558
4890 -0.83661420487610216 3.2704002071059026 3.0446138610942541 109 101 80 1.1213379694657339 2 10588 3 8590 4 8099 6 11828 7 8574 11 9193 10 8656 9 10045
4891 -1.0216491422023695 3.1463746764013796 3.2238924847899693 131 122 105 2.0826980341042804 2 10593 3 8597 4 8110 6 11849 11 9207 9 10064
4892 -1.0300567012559645 3.1524249182171435 3.2298214587799285 131 122 105 0.48781858948619305 2 10592 3 8598 4 8111
4893 0.22400824137684727 3.569270206283035 2.6295268308273223 85 77 64 0.57731331889857229 2 10618 3 8601 10 7931 9 9215 2 10329 8 12132
4894 0.37079059856290059 3.383264205606054 2.9707750983489123 229 200 160 0.06070417488710457 3 8615 4 7776
4895 1.0367592669775305 3.6246254947209589 2.6118797165550265 98 89 72 0.95140943999071281 17 8578 3 8619 5 7658 6 10718 7 5821 8 8686 10 5654
4897 0.55522012866073511 3.3941220845649531 2.9662253620196246 93 86 70 1.056429644420334 2 10650 3 8627 4 7782 5 7961 10 5774
4898 1.1690418143504973 3.5372204787323502 2.774408157497096 179 156 102 0.91770890367131408 16 7672 3 8631 6 11261 7 7044 8 10085 10 5639
4899 1.1690096688203033 3.5379592430806461 2.7742216466127738 179 156 102 0.92900727747607714 16 7671 3 8632 6 11262 7 7045 8 10086
4900 -3.283428586567481 6.4141382290991009 -4.1345806197311044 246 253 253 1.1201434257486913 2 10399 3 8674 4 7923
4901 -2.1720363860492671 7.0257285728825538 -3.6954365372392375 138 140 152 1.0380741189073874 2 10668 3 8678 4 7933
4902 -2.642239694658385 6.8690067420473966 -3.3463931968038634 182 178 177 0.057615711881789655 2 10670 3 8683
4903 -1.7543049122586998 6.9415119454035557 -3.3810124366567367 188 181 172 0.60330070330192853 2 10810 3 8686 4 8229
4904 -1.5604019775931379 6.7253978777258654 -3.0441181577599838 140 143 150 1.2365229198017982 2 10813 3 8688 4 8230
4905 -2.0037628619256385 6.4495390485538078 -2.540688178721068 175 169 150 2.0001661216822693 2 10816 3 8693 4 7948
4906 -1.0840723882210339 6.345459822664675 -2.2381136878312362 122 116 102 0.49976604294927834 2 10828 3 8700 4 7958
4907 -0.69180321403684131 5.4818535701892834 -0.68495209746776209 157 152 141 0.50023198154119608 2 10859 3 8727 4 7991
4908 -0.38027233553222395 3.0183911108114256 0.71828557248769265 191 183 160 0.12862191029805856 2 10714 3 8730
4909 -0.12564655084496343 5.2159285563448314 -0.23122451500190361 188 182 170 0.83539441457220953 2 10869 3 8739 4 8002
4910 -0.12564655084496343 5.2159285563448314 -0.23122451500190361 188 182 170 0.83539441457220953 2 10868 3 8740 4 8003
4911 0.97211396011289541 4.9493589150451651 0.33121299612539157 210 189 144 0.81405487737116511 2 10881 3 8762 4 8026 5 7859
4912 0.57591496237122297 4.6961007653976701 0.70185617017370294 164 148 122 1.3485429892392995 18 10489 3 8767 4 8039 5 8087
4913 1.3965376052596576 4.8971140621154738 0.44821192890050776 131 120 92 1.3998831506316032 17 9904 3 8770 5 7863 6 11484
4914 -2.7718341820754344 3.4770062537960547 2.5693794045908351 200 180 130 0.85825496135515855 2 10721 3 8773 4 8304
4915 -1.3824414271493961 3.2034904015260457 3.1043904842053194 139 131 110 1.3635360542439643 3 8805 4 8336 6 12003 7 8830 11 9653 10 8856 9 10271 8 12637
4916 -0.96226757408843422 3.3078699838482848 2.9709834367703167 142 134 115 0.99270367158388995 2 10750 3 8806 4 8334 5 8164 6 11989 7 8718
4917 -0.95390908956126685 3.2969629379234178 2.9680653058653523 142 134 115 0.50703314953952017 2 10749 3 8807 4 8335 5 8165
4918 -1.6347370726279944 3.0570749789944869 3.3507253937713042 153 144 127 1.1472749163707856 3 8808 4 8341 5 8327 7 8841 11 9665 10 9013 9 10413
4919 -1.0483087641006132 3.2544537731542702 3.0613045803297898 135 126 109 1.7163137253566521 2 10752 3 8809 5 8322 6 11997 10 8842 11 9441 9 10260
4920 -1.1184420479903778 3.2046998683343202 3.1281924388003928 140 132 114 0.89256477895746689 2 10754 3 8814 4 8098 11 9442 9 10262
4921 -1.5206849349558145 2.9030609445409712 3.5888406173262242 154 143 124 1.2181153386248156 3 8821 4 8354 5 8337
4922 -0.14902607684659494 3.2894019584175913 3.0842571190212849 175 161 133 0.5920066944953164 2 10770 3 8831 4 8118 6 11984
4923 -0.88367588038734268 2.8968159508439562 3.6984353150026674 224 199 159 1.520672984352853 2 10771 3 8837 4 8372 11 9200 7 8840 10 8670 9 10077 8 12539
4926 1.368083301594776 3.4183918171394017 2.9901075122935805 141 126 95 0.69179974099505537 17 9185 3 8865 5 7968 6 11281 7 7060 10 5608 8 10081
4927 0.46831379245655524 3.0411085921608758 3.5782280796459252 118 107 87 1.5969221792400874 17 9485 3 8872 4 8393 9 9685 8 11794
4928 -3.39175057341776 5.8963821138158998 -4.0119664504970238 135 134 130 0.72871955942423516 2 10803 3 8886 6 11884
4929 -3.39175057341776 5.8963821138158998 -4.0119664504970238 135 134 130 0.72871955942423516 2 10804 3 8887 6 11885
4930 -1.5356610384365432 6.6509967735798075 -2.8218093950953089 199 189 172 0.83032403156407686 2 10815 3 8896 4 8231
4931 -0.44700635653493048 5.9018249679071086 -1.4253216904658284 149 150 154 0.43878724412269082 2 10850 3 8908 4 8243
4932 -1.0343846648773112 5.6277438200562342 -0.8946612603713443 145 142 135 1.1272291213114878 2 10853 3 8911 4 8254
4933 0.0040124445091346828 5.3350529432721983 -0.39545455916197347 176 159 129 0.26574808594216898 2 10865 3 8922 4 8266
4935 -2.6607228192152501 3.4236130360462163 2.6908942281218398 151 143 126 0.7314576125259441 2 10880 3 8953 4 8311
4936 -1.7611662529759937 3.2141356872198732 3.0681377440705697 163 151 134 1.3050448661135006 2 10736 3 8970 4 8326 5 8321 6 12089 7 8834 9 10412 11 9829 8 12652
4937 0.76628630836722955 3.983970649457985 1.9850378496205148 74 67 51 0.33004423221521462 2 10902 3 8978
4938 1.715303423011143 4.3041790046248742 1.4877600823518129 153 134 101 0.79017836054512858 2 10904 3 8979 4 8317 5 7890 6 11510
4939 -0.13345564761506881 3.5155513706995034 2.7053658838338879 107 97 75 0.77319026895409726 2 10901 3 8984 4 8514 5 8411
4940 0.013759709706304829 3.5280103511931946 2.6757187731461225 99 92 74 1.0327697994634149 2 10763 3 8986 4 8338 5 8317
4941 -0.08546194728735354 3.3833204284280303 2.9160066050265181 109 100 85 0.96445567465797688 3 8988 4 8522 5 8415 9 10017 10 8373
4942 1.6371206182183813 3.6371707651361933 2.6262087939047789 78 68 56 1.4024387290996245 17 9769 3 9011 4 8366 5 8155 6 11568 7 7774
4943 -0.2143236466105902 2.8244627255000183 3.901551267520377 131 120 100 0.86951154378744555 2 10794 3 9022 4 8536
4944 -0.21432364661058997 2.8244627255000179 3.901551267520377 131 120 100 0.86951154378749551 2 10795 3 9023 4 8537
4945 -0.11340370889315107 2.8242137950596793 3.89495431669787 183 162 117 1.6484130817414666 3 9024 4 8403 7 8737 11 8737 10 8390 9 9720 8 12385
4946 -2.3250855355945532 6.7232715640073986 -3.0551871660016374 139 146 156 0.7522658656859772 2 10928 3 9040 4 8440
4947 -2.3250855355945532 6.7232715640073986 -3.0551871660016374 139 146 156 0.7522658656859772 2 10929 3 9041 4 8441
4948 -1.5951957429213321 6.520788263078507 -2.5820375663982782 116 115 112 0.80207524839491318 3 9044 4 8442
4949 -0.96963093412836143 6.283953365768169 -2.0347223577683975 181 167 139 0.82750809805081227 2 10937 3 9050 4 8446
4950 -0.67681012141375496 5.7949307025448533 -1.2533673605062836 164 156 145 0.79046683003249907 2 10944 3 9053 4 8453
4951 -0.022007426688956638 5.6538538608880691 -0.96677749730179485 192 186 162 0.38114017813126294 2 10950 3 9060 4 8459
4952 -0.21417238441888362 5.3404709511662238 -0.41991033897839714 140 139 137 0.87682495293058837 2 10952 3 9065 4 8461
4953 0.2231086671713513 5.2835540939201939 -0.31034184991027558 126 122 111 1.0480621143631252 2 10957 3 9066 4 8465
4954 0.16152539939096888 4.2340028735398274 1.3578402046754197 0 1 0 0.60209232889058006 2 10978 3 9094 4 8581
4956 1.8665681833628249 4.1854128085246645 1.6963618144179597 102 95 77 1.8059225759796429 2 10993 3 9118 5 8115 6 11520
4957 -0.22348967962492491 3.4178372859207258 2.8678590414986775 91 83 60 0.79498639003533644 2 10903 3 9119 4 8520 5 8414 6 12086
4958 1.6207151414204677 3.8799355950204268 2.2137892807919761 136 129 111 1.0860780282663991 16 8900 3 9128 4 8519 6 11758 7 8180 8 11684
4959 -2.1231944867735928 6.8361464267351302 -3.240244866430869 186 186 178 0.23600359441301846 2 11004 3 9141 4 8549
4960 -0.51632746975050847 5.7003747755653169 -1.0075351577886504 150 149 145 1.2441366745202076 2 11013 3 9149 4 8558
4961 0.16650770501857232 5.4195444398435981 -0.63212029059441888 134 125 118 1.1811992369335644 2 11017 3 9151 4 8562
4962 0.083046833708350823 3.65343380468404 2.5071766658086592 171 153 114 1.6495633524668531 2 10989 3 9182 6 12077 3 9112 7 8700
4963 0.42706435461596809 3.4977438381855479 2.7752695566637007 127 107 72 1.435363386443419 3 9187 4 8691 10 8811
4964 0.42931055937128637 3.5050081720759527 2.7677604016339137 127 107 72 1.9197790404466573 2 11048 3 9188 4 8690 5 8480 6 12141
4965 0.08040380675230728 3.2950558919213253 3.0936971078260149 179 157 119 1.8469592487011899 3 9189 4 8696 5 8484 6 12177 10 8982 11 9614 9 10374 8 12617
4966 -0.29665650854297065 3.0736402118397668 3.4521255163305993 175 153 113 0.80905167346167695 3 9190 4 8701 5 8540 6 12187 11 9794 10 8989
4967 -0.30126729070774849 3.0878483825765901 3.4548845749774997 175 153 113 1.7527427078336517 2 11053 3 9191 4 8702 5 8541
4968 0.54616947241035729 3.3325151565809432 3.0471731900540653 187 169 129 1.3073916613539507 2 10997 3 9192 4 8622 5 8418
4969 0.037135280519271757 2.5528286738690342 0.35427359712829043 202 188 154 0.60965847440032195 2 11015 4 8647
4970 -1.9681742334651675 3.1766830375949517 3.0932070212518865 246 235 173 1.4257418145419949 2 11026 3 9237 4 8754 5 8565 10 9190 9 10590 11 9973
4971 -1.745693325292047 3.1494955977958581 3.1993850683069249 170 157 138 2.2496956418564631 3 9240 4 8756 5 8566 11 9971 10 9164
4972 -0.87088711335780344 3.1667577574958075 3.2295799704089223 131 120 102 1.9650758338525942 3 9242 4 8692 5 8534 6 12210 11 9890 10 9131 9 10534
4973 1.4913958858848555 3.9954484665197314 2.009510496721806 99 89 77 1.4252121190309293 2 11082 17 10093 3 9243 16 9061 4 8685 5 8462
4974 0.55969770578681954 3.4611879189540358 2.8711803067705741 87 80 64 1.6133460443679448 2 11083 3 9251 4 8761 6 12170 7 8898 9 10364 8 12607 8 12704
4976 0.201994212892457 4.8796963367245283 0.44625772035056799 140 128 114 1.368128136699623 2 11111 3 9274 4 8781
4977 0.56572351762110462 4.2603322686898117 1.2970533928396528 107 91 71 2.0783071439510166 2 11097 3 9310 4 8782
4978 -0.0029397337428166137 3.4429304535060226 2.779243927434206 132 117 94 2.185065226020745 3 9317 4 8822 7 9005 9 10559 8 12776
4979 0.88658893553885876 4.4248745661275581 1.2043893891568733 174 150 105 0.80912682759510501 17 4740 18 7744 2 6231 3 1272 15 9780 13 6367 14 7309
4980 1.1583977625261572 3.709241232773651 2.4769507686030665 110 96 67 0.9374592301047433 15 10855 16 6691 17 7720 2 9934 3 7593 12 6735 1 6408 13 7894 4 7188 5 7121 6 9902
4981 0.79250695236195912 4.1553490353744946 1.6706156334174316 204 192 153 0.40209850412952119 15 7569 13 2854 3 1538 16 5148 18 8697
4982 0.42079854034462938 4.1607975075387191 1.6268010494650524 97 88 62 1.2570987527242856 15 10884 13 9189 14 8346 3 4095 16 2453 17 6299 18 8598 6 9769
4983 0.4661021035247086 4.0826410757439202 1.7648483451747576 144 129 82 1.6539851260931997 12 6830 13 9173 3 4165 17 7586 2 9728
4984 0.7612638330947834 3.9891430863512558 1.9573301019244032 130 122 96 0.61593104939040089 15 9537 14 7128 18 8730 3 4346 16 2550 17 4648 4 4221 5 4376
4985 1.2395570502393425 4.1647907063849239 1.694135142158129 87 77 60 2.1201782410771846 15 10991 12 5214 13 8057 14 8413 16 6790 3 6099 4 4180
4986 0.69362578465021552 4.2531758515776108 1.4911233189044826 98 88 67 1.3792961728744233 12 8523 15 12164 1 7448 13 9903 14 9672 3 7307 16 8256 2 10274 5 7003
4987 0.79003093946773117 3.9188977090985824 2.0804989672717284 177 160 123 0.5699144606360852 12 6793 1 6455 13 9145 15 11657 14 9137 16 8244 2 10613 3 8181 17 9120 18 10142 4 7122 5 7619 6 11217
4988 0.4094600693518371 5.1066279542109747 0.15556016518969698 120 112 98 1.044369591605349 3 9273 4 8734
4989 0.56292557993462355 6.6031330490229614 -2.5579592512746632 167 174 184 1.1090808437012105 3 3341 4 282 5 314 6 4843
4990 0.37031222753435927 6.1104815422189409 -1.6989198055563501 165 167 166 0.318355947271105 3 3402 4 366 5 367
4991 -0.11688159800167067 6.0008462287246163 -1.5161954863409641 211 201 191 0.17257737370979032 3 3406 4 373
4992 0.84378310510648225 6.1060785073488937 -1.660595254963749 196 184 175 0.94438334035696991 3 3432 4 379 5 371
4993 0.24614761626133383 5.2347291423618048 -0.20465599798976886 117 110 97 0.52528664065249597 3 5604 4 676 5 585
4994 1.3998855707168734 5.4041077323552846 -0.44634873217689575 228 206 165 0.67161814043354673 3 3699 4 696 5 525
4995 0.17859577116338554 5.1294755698836383 -0.049965687086396704 176 168 148 0.54644294247459635 3 3672 4 716 5 619
4996 1.0428547590906563 5.2097512311097898 -0.12029088844242464 210 186 136 0.3981949413843946 3 3733 4 758 5 606 6 575
4997 0.80809294689728306 5.0681268560924213 0.10643896407187389 228 206 157 0.3989543093795816 3 3756 4 812 5 665
4998 1.5125838808162846 5.0255488469417502 0.22710171200972992 219 203 153 0.42741967019594201 3 3869 4 901 5 691 6 5113
4999 1.6624939080808339 4.6777328968093652 0.82162301187992193 87 72 53 0.54402629511520073 3 4034 4 1136 5 917
5000 1.6014446662246646 4.6502961397901919 0.85567977044549681 219 199 147 0.31779071857913549 3 4035 4 1143 5 937
5001 1.4790920551186089 4.5956905029183552 0.96059167969092707 220 203 161 0.23204132573090866 3 4050 4 1172 5 977
5002 0.82310290131932606 4.4001740753542302 1.2372515038475937 93 81 65 0.57477700644376373 3 1273 15 11013 4 1204
5003 0.1698854043944194 4.2193221426739589 1.494319858572676 83 71 46 0.70829728751787691 3 1222 4 1232 5 4203
5004 1.0720401574787006 4.3810295004055853 1.313723996683519 122 109 88 0.27401888256051127 3 4109 4 1302 5 1125
5005 1.4161711558175736 4.4449830502697685 1.2174044284245018 225 204 173 0.32402415893576725 3 4149 15 11169 4 1311
5006 0.53849163191889227 4.1465128770544606 1.6564045586760854 90 79 57 0.56769510231278808 15 9564 4 1376 6 5775
5007 1.8953704993751763 4.4017541640678433 1.3290711002835753 203 183 135 0.5110671188059599 3 6092 4 1441 5 4172
5008 1.8953704993751763 4.4017541640678433 1.3290711002835753 203 183 135 0.5110671188059599 3 6093 4 1442 5 4173
5009 -1.4136078402878329 3.6029834103973091 2.4359420688345379 107 86 65 0.54450006316295119 3 1305 4 1444 5 4515
5010 1.5371161869629186 4.268823035851117 1.5322702124162992 178 159 126 0.34024642251720089 3 4336 4 1514 5 1231 6 1171
5011 1.2745150857695455 4.2043635828351373 1.6249471418604857 168 152 117 0.36298030302268147 3 4316 4 1519 6 5625
5012 -0.2562363878549142 3.8014140799203124 2.1631949915521083 85 77 60 1.5960107197920146 3 4176 4 1537 5 1578 9 5614
5013 -1.1729586242485253 3.5991389899887083 2.4714050504123981 168 155 129 0.55749449254346539 3 1394 4 1542 5 4539
5014 -0.2241626678307562 3.8157492149135126 2.165445758024275 149 138 108 0.38874341135452734 3 1495 4 1550 5 1583
5015 1.932588480277291 4.3199180157816217 1.4685741917806421 178 164 131 0.34607113916924664 3 1818 4 1573 5 1208
5016 -1.7791157451124979 3.3983788908545547 2.7344117708858331 225 214 184 0.37483658353768279 3 4084 4 1587 5 4643
5017 2.0457313674547777 4.319469952454849 1.4642624609249022 117 93 59 0.71418601409324001 3 6175 4 1600 5 1204
5018 -0.085454388284125687 3.7775804574855827 2.2388174753156327 175 157 122 1.0710452438974811 3 4260 4 1628 5 4465 12 2142 6 9931
5019 -1.0040362543882819 3.5655027348548436 2.543372563805439 135 124 104 0.50441484193241304 3 1481 4 1632 5 6219
5020 0.15609476957892901 3.8258602964924884 2.1824747318622548 172 159 123 0.62512549437878784 3 4300 4 1656 5 1611
5021 0.15609476957892901 3.8258602964924884 2.1824747318622548 172 159 123 0.62512549437878784 3 4301 4 1657 5 1612
5022 0.65858854998165084 3.9281448156808101 2.02944157035967 96 85 63 0.26385295971129102 3 1721 4 1673
5023 0.19611171538953623 3.7881032726032746 2.2463518118938057 186 168 130 0.50767792661000144 3 4334 4 1718 5 1649
5024 0.13241085714398393 3.7684246702328781 2.2793834836011069 76 68 55 0.9135873904454328 3 1695 18 7674 4 1724 6 8515
5025 1.2056259772688793 4.0301531746934005 1.9215857815026618 236 212 188 0.49322099268796132 15 7625 4 1732 6 5835
5026 -1.2871174946395396 3.4062973644271612 2.7748908908702794 122 110 88 0.50654867886933574 3 4220 4 1737 5 4669 6 10180
5028 0.59031068334270076 3.7452932234595049 2.3562873277848793 209 196 174 0.47256953784951189 17 4559 4 1894 5 1773
5029 0.59031068334270076 3.7452932234595049 2.3562873277848793 209 196 174 0.47256953784951189 17 4558 4 1895 5 1772
5030 -0.8611652493059353 3.2809523801826166 3.0226512088263675 129 117 92 0.98965117484402276 2 7771 4 1990 5 4852 11 4932 9 7275
5031 0.18206732257283181 3.4769450957740315 2.7870139361710478 222 207 163 0.068956128954099957 3 4537 4 2075 5 4737
5032 0.058804432009717911 3.4336697290875984 2.8524214914816661 200 176 130 0.32934991588351747 3 4535 4 2093 5 2185 17 1782
5033 0.44259238097911124 3.5281738330621462 2.7375801562662216 112 93 56 0.25146936753949783 3 2124 4 2107 5 2090
5034 2.024599813273015 3.9477573462601305 2.1709346699516581 123 111 89 1.4949208244484056 3 4732 4 2110
5035 0.33321789497529086 3.4750373075922418 2.8033168446954546 92 81 63 0.57868077970452136 3 4588 4 2129 5 2145
5036 0.012785720505493314 3.4016722357103739 2.9189603845372267 108 93 52 0.17525875641144964 3 2086 4 2130 5 2269 17 1761
5037 -0.2516033869648634 3.3160565111917424 3.0216398820282979 198 184 158 0.25379145568679146 3 2050 4 2140 11 1564
5038 0.042294822255344339 3.3948017102505581 2.9204789760268532 215 201 154 0.17680329678039572 3 2096 4 2143 5 4819
5039 1.3838375489060615 3.7266114865489341 2.4886365044862222 102 93 76 0.79217653684870959 3 4712 4 2178 5 1923
5040 0.64978721601030243 3.496335500044562 2.8043146544262409 94 84 55 0.50759116793475367 3 2265 4 2219 5 2184
5041 0.054641611743626445 3.3148352885762016 3.0531403859270547 203 189 143 0.22390872544371399 3 2202 4 2249 5 2471
5042 0.29695560377566338 3.3503085844251954 3.0291470180711095 237 210 165 0.045372694763926989 3 2288 4 2298 5 4924
5043 -0.31652342141863543 3.1762138053388336 3.2629978772099397 227 214 162 0.20718377180548209 3 4618 4 2313 11 1594
5044 0.16711988804709899 3.2963156033658785 3.0981895052098722 186 155 109 0.64490895533596049 3 4678 4 2315 5 4973
5045 0.23892765459716145 3.3092426020166905 3.0834805625916495 202 177 135 0.33708714814922075 3 2307 4 2324 5 2561
5046 1.2456054860061645 3.5454164337091263 2.7685761575455481 124 111 95 0.6673197550704929 3 6603 4 2357 5 2195
5047 0.53215681635346967 3.3461809162655647 3.0468622426097878 232 214 166 0.21109375153823329 3 2422 4 2368 5 2532 17 2115
5048 0.045849966155790067 3.189978012879048 3.2674931947503723 247 220 173 0.1927745981243337 3 2374 4 2408 5 5091
5049 0.026371760344959194 3.1849715967158319 3.2857354920966135 247 218 175 0.13826584770116548 3 4725 4 2414 5 5104
5050 -0.21801307167067394 3.1049471996586888 3.3796714262190002 161 138 95 0.23761661214827168 3 4704 4 2424 5 5171
5051 0.14474557173829261 3.2012111312584688 3.264382777701925 157 141 115 0.23731723111248848 2 5006 3 2423 4 2436
5052 1.0351896788314592 3.4338883124176061 2.9405171744464087 94 79 58 0.22931807900036627 17 4707 4 2438 5 4899 3 4829
5053 0.58531558840770248 3.3102142124872498 3.1097989736885396 121 104 74 0.32409367434409003 3 4789 4 2445 5 2662
5054 -0.019394495402164202 3.1517707983079828 3.3321417499101873 238 211 164 0.18488587023007585 3 2396 4 2448 5 5139
5055 0.9684120374686539 3.3990533606188249 2.9827129722813783 221 208 176 0.31939810174543853 3 2584 4 2459 5 4932
5056 -0.045267083784812534 3.13653363435176 3.3570633504428238 236 209 165 0.32971976986349011 3 2406 4 2460 5 5164
5057 1.8073327865061832 3.6123595190543361 2.6802499202121388 232 205 162 0.58551358979443757 3 4951 4 2464 5 2140
5058 0.98417215096375832 3.4072177403452764 2.9911265904062172 106 88 68 0.30769462514502305 3 4842 4 2468 5 4938
5059 0.8133904281858525 3.3389217547146681 3.0814736650612469 159 142 124 0.2499364842761013 3 2594 4 2498 5 2644
5060 1.1193176109353666 3.4193634724649384 2.9692877743132335 119 103 69 0.46244012054450906 3 2650 17 2581 4 2503
5061 0.91785243403140304 3.3591700110472642 3.0545541117282533 119 103 77 0.51664601089486573 3 4865 4 2509 5 2608
5062 0.83522438836631963 3.3343705803774979 3.084246660365642 103 87 62 0.24487177816282632 3 4852 4 2511 5 5003
5063 0.81595804409087302 3.3291790391333307 3.1022957230619714 108 81 54 0.44100604900786405 3 4856 4 2520 5 5011
5064 0.69859621484415158 3.290228112961791 3.150184724501087 215 191 151 0.4598391306357652 3 4838 4 2521 5 2754
5065 1.4349781334657703 3.4725126337053132 2.8890213174439867 79 70 51 0.97908477929035964 3 4941 4 2530 5 2404
5066 0.11336349722497684 3.1133253846542694 3.4097358797912394 194 181 150 0.24417988966511819 3 2510 4 2566 5 3099
5067 0.84232859360560441 3.3036507295933766 3.148577142496372 244 214 151 0.21433475444963429 3 4892 4 2568 5 5048 17 2346
5068 1.2867379796065748 3.3962570158299794 3.024516499558024 254 244 199 0.12687371442704262 3 4977 4 2609 5 2611
5069 1.2867379796065748 3.3962570158299794 3.024516499558024 254 244 199 0.12687371442704262 3 4976 4 2610 5 2610
5070 1.884923386097896 3.5343635458517237 2.8245957485590751 71 61 46 0.28518185038166155 3 5098 4 2628 5 2360
5071 0.50438323060822499 3.165734656689664 3.3392972703735384 222 198 144 0.54147224213045497 3 4889 4 2634 5 5198
5072 0.65048613609150041 3.2088298465876806 3.2903719629783463 236 211 170 0.29506435376540102 3 4904 4 2638 5 5155
5073 0.46250956055944792 3.1477671100334326 3.3790993428511942 205 176 133 0.098574748394509457 3 2682 4 2659 5 3104
5074 0.5886429999185353 3.1801283757709626 3.3478265341418405 229 204 164 0.23259363043846829 3 4913 4 2670 5 5214
5075 0.53043211921258393 3.1462418619167969 3.3801976154173703 110 90 60 0.93203158234441652 3 4914 4 2680 5 5236
5076 0.73027031059946879 3.2200081990187015 3.3119950281069173 116 103 82 0.90430631107312187 3 2796 4 2691 5 3025
5077 0.47130308537741705 3.1297160765557903 3.4115336719978342 165 148 132 0.44953081630415914 3 2738 4 2692 5 3154
5078 0.99047213146253932 3.2584770953254867 3.2267560450542212 231 212 185 0.35137442930081902 3 2878 4 2699 5 2933
5079 0.10403054158498889 3.0234288971090826 3.565249518880615 148 131 108 0.18986715287902786 3 2664 4 2710 5 3359
5080 0.53026489989274272 3.1295339090477317 3.4269353084948366 128 97 50 0.35879763350681371 3 2799 4 2724 5 3201
5081 1.512292116506017 3.3750931555378338 3.0825451267436406 82 71 51 0.69379029742436094 3 5128 4 2750 5 2766
5082 1.2834640708983773 3.2926950707832883 3.2099528025118707 238 219 172 0.26708318101265466 3 5120 4 2789 5 5137
5083 1.2834640708983773 3.2926950707832883 3.2099528025118707 238 219 172 0.26708318101265466 3 5121 4 2790 5 5138
5084 1.0262081727666139 3.2244683680571358 3.3087082337767204 185 166 133 0.52438928673163188 3 5069 4 2791 5 3064
5085 1.2307028049237692 3.271021208356546 3.2427606865801772 89 70 38 0.32140391982613986 3 3068 4 2804 5 2990
5086 0.59078158285052551 3.0819212944751442 3.4997827000811959 231 207 161 0.38717123188200597 3 5030 4 2825 5 5376
5087 0.59078158285052551 3.0819212944751442 3.4997827000811959 231 207 161 0.38717123188200597 3 5031 4 2826 5 5377
5088 0.70685730371614741 3.1092678148992889 3.4702830356629439 94 76 40 0.35618270222666099 3 5059 4 2836 5 6640
5089 0.97491356410275387 3.1672135249741395 3.3767377030140024 96 81 60 0.31542930524344265 3 5105 4 2840 5 5273
5090 0.74316413914383117 3.0933105977675348 3.5060669869825891 187 164 123 0.50246334538402959 3 5099 4 2872 5 3356
5091 -0.14593375851803561 4.5264548919921417 -4.2975554847726105 105 156 150 0.4131510038145178 3 5191 4 3224
5092 -3.0867547795726096 5.8375259979053613 -4.3243712443183124 229 233 223 1.5393823288948465 2 8169 4 3295 6 10392
5093 -3.2115669303326064 5.8631062950319519 -4.3198940798650485 240 242 241 0.21017238177940831 3 5239 4 3297 5 5600
5094 0.25729295663039414 5.6763796530360295 -3.4418520963177412 49 67 53 0.35592155778642015 3 5255 4 3314 5 3633
5095 -2.4579749182261286 7.2330988580776703 -3.8378620898718356 126 131 137 0.95440794915414229 2 8178 3 88 4 3340
5096 -0.12325151629464057 6.8260210042705882 -3.0291666514243158 130 124 109 0.87714332047435073 3 5351 4 3396 5 3670
5097 -0.58178278092273861 6.5039447307388221 -2.5085330814324354 185 172 141 0.73042706936935231 3 5366 4 3404 5 317
5098 0.22778229339590669 6.6246849507706003 -2.6514404475438407 139 152 160 0.4891534563215349 3 5378 4 3405 5 3678
5099 0.1806786947126347 6.4900214672145875 -2.4010955038728534 146 158 177 0.75366189985787935 3 5400 4 3410 5 3686
5100 -6.6075791784897602 4.9218797743442506 -0.52924858182388035 231 223 206 1.3130653585802106 2 6931 3 3274 4 3416
5101 0.15093391550444957 6.3355971135177152 -2.1365642044943232 154 167 182 0.96143294688796666 3 6931 4 3419 5 5634
5102 0.78142044425867596 6.2129262184840126 -1.8546673736754367 119 119 111 0.090268944950238975 3 6956 4 3444 5 3704
5103 -0.56376971879105198 5.6542575594727005 -1.0426896737414035 129 129 122 0.11711741181797229 3 5468 4 3499 5 3759
5104 0.98890121313871449 5.9194946319930617 -1.3760423345232937 186 168 132 0.59831606052414521 3 3482 4 3507 5 3730
5105 1.0903374355782314 5.8629440455350679 -1.2579104252615096 192 172 132 0.31117538456776794 3 5511 4 3533
5106 1.1348514668344478 5.5339018879755928 -0.66728399119734028 149 135 105 0.35579309067107912 3 5589 4 3638 6 4967
5107 0.11669444255978501 5.1769280511173994 -0.098548019865879855 178 167 145 0.68636191836711902 3 3658 4 3702 2 7326
5108 0.12312891256329939 2.6875962131920477 1.3458262303698649 79 71 60 0.61815245661201301 3 5668 4 3741 5 5784
5109 -3.0129393960434183 4.0762854286866848 1.4929860156583021 146 133 118 0.55538332881769026 3 5632 4 3790 5 5969
5110 -2.7015394550835854 4.1254219891848711 1.4486554093692856 211 193 155 0.44109204163969734 3 3700 4 3800 5 5964 6 10704
5111 0.66910123204495731 4.8127563006102685 0.54633360925899055 178 165 130 0.53110383411735274 3 3838 4 3818 5 3945
5112 0.42376009495952061 2.5682657982497146 1.6185069691199023 98 91 75 0.31679352524068988 3 5786 4 3837 5 4031
5113 -2.8323748569515406 3.9209155361259835 1.7704733715043515 134 121 104 0.4003929012319884 2 5718 4 3848 5 6022
5114 1.6587628998035508 4.9098428941240986 0.41141730066645144 94 82 66 0.28915637951480605 3 5815 4 3850 5 3911
5115 -2.8777254037643454 3.834291893315295 1.8721632676183144 225 201 158 0.38358494592943693 3 3758 4 3864 5 6044 7 7883
5116 0.21472880037824046 4.537317463335838 0.93651994968854679 100 93 83 0.86515645894258142 3 5760 18 9198 4 3868
5117 -2.898623607706206 3.7899460625732675 1.955577961985248 156 135 108 0.49097433136967389 3 3770 4 3876 5 6071
5118 0.12238784370379203 2.3970313802630554 1.9470481055494615 58 52 36 0.51955654951172558 3 3973 4 3926 5 4166 6 8210
5119 -2.5409056888258323 3.713349197455639 2.1203743001438013 149 133 117 0.59847536036300231 2 7422 4 3958 5 4373 6 10097
5121 1.7470680971826571 4.6974237141921193 0.79531504553564214 179 156 119 0.55167987593947254 3 5915 4 3967 5 4010
5122 1.8112010305981854 4.6583039429717221 0.86262317194900517 182 154 115 0.45168430333506965 3 5939 4 3999
5123 1.3622298370318169 4.5078689190060981 1.0895289029883861 103 82 53 0.53560918574001193 3 5936 4 4017 5 4100
5124 1.5568523896959352 4.5213048807356619 1.1010459846273988 206 183 142 0.52073860146695272 3 5964 4 4038 5 4107
5126 -1.9240051425352616 3.529850298392895 2.5116156553604263 218 204 175 0.82189268910872182 2 6023 4 4113 5 6195 3 4003 6 10820
5127 -1.9240051425352616 3.529850298392895 2.5116156553604263 218 204 175 0.82189268910872182 2 6022 3 4002 4 4114 5 6194 6 10819
5130 0.4308829950775851 4.0600682786685933 1.795625329061648 156 136 99 1.7079744193377355 1 4782 3 5996 4 4130
5131 -2.0777373824406591 3.4311048105323918 2.6454074242142549 235 216 172 0.49503414075587771 2 7579 3 4018 4 4136 5 6223 6 10836 7 7261 11 8862 10 8147 8 11938
5132 1.7801499673498915 4.3668739156384824 1.3753858640269123 163 138 102 0.66346682356752285 3 6091 4 4137 5 4186 6 8053
5133 -2.1774113913852622 3.404124121375006 2.7262168401571003 226 202 163 0.85827582626825849 2 7580 4 4147 5 4633
5134 1.817361656505782 4.3508817199691157 1.4037383292157231 212 189 148 0.38089117239266845 3 6103 4 4149 5 4199 6 5440
5135 1.8105241037587536 4.2829950241754648 1.50721776566574 109 97 72 0.71930914278836822 3 6129 4 4181 5 4241
5136 -0.30208505130834307 3.7581274157199336 2.2443579040987234 172 157 126 0.74288721746280417 3 6005 4 4193 5 6156 11 4682
5137 -0.30133394476293451 3.7576407567593684 2.243466193743012 172 157 126 0.6233433927050327 3 6006 4 4194 11 4683
5138 1.9622544820089542 4.3019869247409899 1.4953757936669851 216 195 147 0.68145193476010935 3 6168 4 4196 5 6013
5139 -0.064811853357098909 3.804709368259537 2.2111945802649422 145 129 96 1.135794320139752 3 6043 4 4205 5 6154
5140 1.9480580661365683 4.2959428872044656 1.5263825235004214 88 79 62 0.9348291287784668 3 6186 4 4211 5 1245
5141 -1.5818811642601744 3.4093389642722838 2.7461021449571468 131 118 100 0.79561166550897389 3 4132 4 4217 5 6259
5142 -1.0983867537578464 3.4936785990403512 2.643325096561842 193 173 136 0.9362838652594011 3 4198 4 4239 10 6161
5143 2.0953620192353037 4.2645915950643634 1.5719351163024327 113 100 75 0.33972251666176639 3 7488 4 4245 5 6024 6 8081 7 3693
5144 1.6478782214799741 4.0831964560970482 1.8642741752366583 130 117 101 1.39646313525402 13 8034 4 4302 5 4363
5145 2.0606868819249771 4.1791248650648942 1.7315211676470188 225 205 155 0.26168682915602842 3 6342 4 4305 5 1386
5146 2.0311638509219359 4.1548368359762247 1.7644621766624151 216 195 155 0.46254883083004111 3 6344 4 4313 5 1409
5147 0.23515726589357036 3.7065424466112007 2.3879150199567385 181 159 120 0.313210114805693 3 6143 4 4314 6 8571
5148 0.31605065387928366 3.7053250519494796 2.3969119637033494 190 172 135 0.29933348362984952 3 4410 4 4326 5 4546
5149 0.31605065387928366 3.7053250519494796 2.3969119637033494 190 172 135 0.29933348362984952 3 4411 4 4327 5 4547
5150 2.1165698407127498 4.1371974355762999 1.8105142127633662 97 87 60 0.2165200437027415 3 6399 4 4354 5 1435
5151 0.037152068281106204 3.6097226741938226 2.5426635030629181 85 74 57 0.86797004768722064 2 7849 4 4359 5 6232
5152 1.3034320800592492 3.9294092215133958 2.1059030620002872 177 167 131 0.34673314842132091 15 10934 4 4361 5 4452 6 8315
5153 2.1594464650307947 4.1237144952456548 1.843434511202837 99 88 68 0.4855213061271087 3 6420 4 4388 5 1460
5154 0.12813102242940869 3.5940355592917226 2.579455387259157 217 195 156 0.65252339413158722 3 6213 4 4404 5 4636 7 5912 17 6169
5155 0.042693343814169699 3.5497280819305557 2.629813922778383 91 84 65 0.48168253540127259 3 6214 4 4411 5 6257
5156 -0.66130302306976974 3.3751361957368751 2.88691220168021 107 96 77 0.17890654299792882 2 6387 4 4419 11 1752
5157 1.0994513870632949 3.8303123159697412 2.2691183793635088 96 85 76 1.0616307022657778 17 6487 4 4422 5 1729
5158 1.1676182294077413 3.8301071807658613 2.2738691301829435 75 70 57 0.09073777231281209 3 6364 4 4435 5 1735
5159 0.11514486311414296 3.554894538176895 2.6425954483612668 96 84 70 0.30066221495629053 2 7903 4 4436 10 1031
5160 -0.41227041789457775 3.3444890445759343 2.8591787487672793 173 154 119 0.97960047459361188 3 4435 4 4451
5161 1.2016985314844444 3.8148284002169794 2.295705063277361 80 72 61 1.5632492919865999 16 2731 4 4459 5 4533
5162 -1.4915294912015704 3.1260132101451799 3.2390605438937943 135 121 94 1.0971423176160657 3 6120 4 4464 5 6404 2 6291 7 7334 11 7114
5165 -0.67803994842258952 3.3109754020131339 2.9892567235193983 210 194 145 0.81011725366444376 3 4433 4 4482 10 3890
5166 1.7997701239223121 3.9344726090334632 2.136299283811836 57 49 37 0.15977035657515684 3 6447 17 7908 4 4499
5167 -0.27083967024227762 3.4101377626372553 2.873197908513641 190 169 139 0.26080697709687484 3 4477 4 4501 5 4775
5168 2.2072881868429217 3.9974734846888897 2.0162845352721019 76 68 49 1.6848454034258669 3 6502 4 4506 5 1585
5169 -1.3643718672637566 3.0992186766961676 3.2937188364976904 131 112 80 0.8347405319317438 2 7741 4 4520 5 6445 6 10928 7 7940 11 7073 10 7423 8 11927
5170 2.180069239369324 4.0203115380529795 2.0474745920464077 54 42 17 1.0054390324313924 1 1994 3 6518 4 4529
5171 -0.50163381923459638 3.3102371379794153 3.0148427522562473 229 208 151 0.40488147964109206 3 6261 4 4537 5 6351 11 4787 8 10291 7 6123
5172 0.14823083823875624 3.4590953492040839 2.8177633587356876 207 192 155 0.37785082092568684 3 4546 4 4554 5 4756 6 10103 7 5954
5173 1.9164139245221601 3.9050637194935773 2.195070332054617 232 218 176 0.27472184720983445 3 6515 4 4555 5 4499
5174 1.9164139245221601 3.9050637194935773 2.195070332054617 232 218 176 0.27472184720983445 3 6516 4 4556 5 4500
5175 1.8205865687290821 3.8677682231252382 2.2364829167783449 77 69 50 0.42232126599118686 3 6506 4 4563 5 4520
5176 0.87763681017721062 3.6291566986141941 2.5786578975668175 81 74 56 0.42895506446157511 3 6422 4 4565 5 1962
5177 -0.45302220691796224 3.297783866583377 3.0502915958229369 231 203 156 0.61376688551026892 3 6294 4 4571 5 6364 6 10838
5179 0.90490702026634817 3.6193546556558083 2.597946933310026 85 77 59 0.80003861723650294 3 6434 4 4589 5 1982
5180 -0.44479573051301813 3.275941448261003 3.087435851527518 130 115 86 0.92127328850788215 3 6310 4 4595 9 7178
5181 1.7805570359169429 3.8442562846912987 2.2991090886002419 136 126 102 0.46012482999461946 3 6523 4 4598 5 1795
5182 -0.21021994478508552 3.3229437570634155 3.0203310001420967 98 85 68 0.5159808404374695 3 6352 4 4603 5 6360 11 1539
5183 0.75734176642435502 3.5476344802636102 2.7269395734332278 167 154 119 0.46748267037383517 3 6449 4 4637 5 6300 16 4969 6 10006
5184 0.73707048230211725 3.5333212806916712 2.746108726571062 181 163 127 0.096039384072393541 13 2138 4 4643
5185 -0.78622979632289891 3.1182872692473063 3.3292330081086421 110 95 73 0.82947404465287899 3 4541 4 4665 5 6476 6 10896 7 7270
5186 -0.78622979632289891 3.1182872692473063 3.3292330081086421 110 95 73 0.82947404465287899 3 4540 4 4666 5 6477 6 10897 7 7271
5187 1.8777346344650121 3.7987277372019084 2.3785473301958699 96 83 64 0.72792775130207266 3 7665 4 4676 5 4588
5188 1.3519634279973458 3.6682770490520626 2.5673397739485466 146 92 44 0.90356729433498995 3 6537 4 4677 5 4664
5189 -0.5388463419854953 3.1664274594818842 3.2591004764711795 95 87 68 0.53365244934496403 3 6381 4 4685 5 7217 18 8573 6 10875 17 5945 7 7237 11 4811 10 6044 8 11223
5190 0.90016805924724352 3.5368486499857767 2.7497080412241366 110 96 78 0.70551529322113815 17 6395 4 4687 6 6531
5191 1.9020243221155382 3.7925682613174097 2.3924641674661755 131 116 96 0.57926253438034758 3 6607 4 4688 5 1876
5193 -1.1036759469889725 2.9898054666205991 3.5162769725320162 209 187 146 0.2499869833038082 3 6357 4 4719 7 7955
5194 -1.2300724844611768 2.9309736466418346 3.5878082712421593 138 125 93 0.76227834475903344 3 4553 4 4738 5 6595
5195 0.16155680636360392 3.3051248894049063 3.1272213890530929 118 104 83 0.84747713955347492 3 6480 4 4757
5196 1.6154708992884665 3.643389513860201 2.6190373645964344 81 75 61 0.98928412080099337 3 6623 17 4997 4 4764 5 4710
5197 0.82725265246531088 3.4379697045898663 2.9207213885785461 90 78 56 0.4305234826492888 3 4764 4 4771 5 4868
5198 0.83329731004757512 3.4200329684361241 2.9451880360950851 149 133 110 0.47948333474678267 3 4779 4 4783 5 4883
5199 1.088489463311904 3.4613230241398143 2.8915986967705245 123 112 80 0.50242102692603363 3 4825 4 4792 5 2361
5200 1.5492490853341074 3.5912488461116103 2.7245799516494649 90 73 47 0.69095418445582524 3 6643 4 4793 5 2168
5201 -0.27523250682132272 3.0674261968448087 3.4567392710534515 209 186 144 0.5700852290342544 3 4726 4 4822 5 6569 18 7735
5202 0.8662320798341917 3.3664296668366056 3.05285045537549 101 87 68 0.7317480851487641 3 6624 4 4825 5 6407
5203 1.6509124369726558 3.5557769262251342 2.7977339337142784 90 80 55 0.96498772124317134 3 6696 4 4838 5 4828
5204 0.84057332383633676 3.3263954305151691 3.1030982541344159 241 218 184 0.065704955542332022 3 6632 4 4839 5 6437
5205 -0.21036813136622071 3.047967232868011 3.501758647325786 122 105 85 0.41767306766055939 3 6559 4 4844 5 6600
5206 1.1159204595346801 3.3915381113922676 3.0200204869475358 135 121 92 0.4188274337299136 3 6655 4 4850 7 4245
5207 0.97677125038208379 3.3531559997150868 3.0764296802195785 106 93 75 0.44552068605459733 3 6647 4 4856 5 6429
5208 1.1807704783745776 3.4074703481953335 3.0111686460636444 97 73 35 0.70083299386829667 3 6671 4 4861 5 6400
5209 0.74595936793263495 3.2784470469595735 3.1724535603068178 112 84 55 0.24635707346426336 3 6638 4 4863 5 6467
5210 1.04692239926985 3.3521198392377904 3.0753289635698255 117 104 86 1.5151093255847072 17 2527 4 4879 5 5007 3 4907
5211 -0.49256525820965458 2.9231130996967551 3.6663615752455878 227 204 160 0.3333517325792415 3 4763 4 4890 5 6691
5212 -0.7605695313133628 2.8573994984948863 3.7778431223940685 183 164 130 0.92734882422991971 3 2424 4 4900 10 4080
5213 0.85617878537009429 3.2771729939167149 3.1925688335700806 122 112 88 0.20582777808446515 3 4912 4 4907 5 5089
5214 0.66674160236339708 3.2188853765093244 3.2744392552926684 241 215 178 0.15701512885361393 3 4900 4 4912 5 5145
5215 1.0231784184407775 3.2977622789359473 3.1651408865876127 106 91 68 0.44332094246497006 3 7729 4 4927 5 7225
5216 0.6129530091898765 3.1889296101487852 3.3224899173591034 242 224 184 0.12990347975355079 3 4908 4 4929 5 6541
5217 0.67272137642710261 3.1946532298123547 3.3114573611994955 245 215 153 0.30478788803222118 3 4924 4 4940 5 5183
5218 0.57222630076948355 3.1788824824996209 3.3617903292915994 231 204 167 0.66790994613999555 3 4916 4 4948 5 5224
5219 1.3708072306563002 3.3769334240827442 3.0693023076290289 100 90 63 0.79214944422556588 3 6736 4 4951 5 5024
5220 0.55310885496558415 3.1527161979395917 3.3816409181651639 238 210 171 0.26801002143270364 3 4926 4 4952 5 5242
5221 0.78494686680449999 3.1930763016878871 3.3175204870586041 127 113 87 0.4592734206212199 3 4975 4 4959 5 6549
5222 0.49059266987276728 3.108413364453662 3.4437597530638522 229 203 166 0.61024987788527929 3 4948 4 4968 5 5293
5223 1.3563488348515029 3.275529166768322 3.2367477227986092 205 185 134 0.48756875145092365 17 4835 4 5032 5 5173
5224 0.55451800851708177 3.0574620193258197 3.5398349493960213 212 194 146 0.58094626360788604 3 6733 4 5033 5 6672
5225 1.1310117987015313 3.1617169186758574 3.4138934450774867 150 134 108 1.4110436576043945 17 4721 4 5079 5 6625
5226 1.1563514622096629 3.150841739691141 3.4448650107458092 98 85 59 1.5913346424821642 17 2563 4 5108 7 1644
5227 0.1330471555823432 2.8434468394308783 3.9132753264103073 110 95 74 0.31911269690123223 3 5146 4 5164
5228 -0.070838575330598924 5.4221489646348218 -3.4923972084714618 195 190 170 0.78083847666020079 3 5251 4 5415 5 5601
5229 -0.73325284311188055 7.0732759325209429 -3.5926263535997993 129 143 157 0.92768377205813712 3 6863 4 5429 5 5615
5230 0.30709853120976449 6.7101413587038383 -2.8159613451972811 191 195 196 0.65714060557460952 3 6897 4 5455 5 3673 6 7582
5231 -0.43931949389567315 6.4903907297356742 -2.424849037699075 121 115 99 0.58282101491504268 3 7888 4 5468 5 5631
5232 0.014794378653873869 6.3523076615212313 -2.1631414019279496 194 193 192 0.30280697840734055 3 6923 4 5479 5 5633
5233 0.89776490164966416 5.9767214155469839 -1.452594588517049 150 135 104 0.58086174866961271 3 6984 4 5520 5 5645
5234 -0.15957976953055156 5.3863742499322287 -0.54438370160414951 210 198 185 0.44551576765732803 3 7020 4 5580 5 5688
5235 0.95911837335534056 5.5100300031387386 -0.66452620471373569 183 164 132 0.55103836335775047 3 7060 4 5600 5 3786 6 7690
5236 0.22565510133397795 5.3759662370611228 -0.46432050650549317 182 166 137 0.95273019936660985 3 7048 4 5602 5 3809 2 9432
5237 -0.086432350407738029 5.1735833474627286 -0.066930124420232134 119 115 109 0.19271056207794102 3 7078 4 5636
5238 -3.0521631197925352 4.2394642333829928 1.2011774621261244 224 207 164 0.56240607387085895 3 3619 4 5677 5 6964
5239 0.091115946109415674 2.6869165324615767 1.3643886805473593 58 54 43 0.41363357854880495 3 7135 4 5679 5 6913
5240 0.13387817003106162 2.6203897518548263 1.4615453572690986 54 50 39 0.92597089915120501 3 7150 4 5695 5 5810 6 9616
5241 0.94153293306058106 4.695972177856226 0.76123969654743562 99 91 72 0.29640832754154622 3 7222 4 5780 5 5829
5242 0.11580962706448246 2.428838062869231 1.8542788013283615 89 82 64 1.4213743521296991 3 7224 4 5784 5 5934
5243 0.17267107619470146 2.4193358536631795 1.87382928368399 84 78 60 0.75607563306136594 3 7235 4 5792 5 5943
5244 1.8535753587682182 4.6741835028710872 0.86546130847146951 87 67 42 0.54720530166879444 3 7304 4 5859 5 5860
5245 -2.7089670308412006 3.6027422645384082 2.3322077430253225 225 199 157 0.72657846996664777 3 5754 18 8090 4 5862
5246 -2.9449222957142775 3.4972377510479604 2.4820651856610763 156 141 122 0.6968303708326129 2 7450 3 5758 4 5869
5248 1.8210248643192593 4.547279092237412 1.0433692724584256 85 78 60 0.59755354896917945 3 7328 4 5886 5 5893
5249 -2.3728075481985242 3.5541553955121894 2.4262081194140208 177 158 126 0.63465855301520524 3 3936 4 5895 6 11315
5250 -1.8246513754109608 3.6873055821922782 2.2569069784638836 232 213 172 0.80814230828386058 3 5843 4 5897 5 7071 6 10779
5251 1.7295779680855146 4.5235000763884434 1.1062220326316305 93 81 65 0.57631753985869993 3 7333 4 5898 5 4109 6 5335
5252 -2.42578621936237 3.5519568174831209 2.4577844343039641 164 148 115 0.61972546421701313 3 5822 4 5901 6 11320
5253 1.9233415330828552 4.5392821362198692 1.0933290675732972 88 79 64 0.83856231834169837 3 7347 4 5907 5 5906 6 7967
